   99.998077   99.998077   99.998077   99.998077   99.998085   99.998085   99.998085   99.998085   99.998085   99.998085   99.998085   99.998085   99.998085   99.998085   99.998085   99.998085   99.998093   99.998093   99.998100   99.998100   99.998108   99.998123   99.998146   99.998169   99.998199   99.998238   99.998291   99.998360   99.998444   99.998550   99.998672   99.998817   99.998993   99.999184   99.999390   99.999603   99.999802   99.999954  100.000000  100.000000  100.000000  100.000000  100.000000  100.000000  100.000000  100.000000  100.000000  100.000000  100.000000  100.000000  100.000000  100.000000  100.000000  100.000000  100.000000  100.000000  100.000000  100.000000  100.000000  100.000000  100.000000  100.000000  100.000000  100.000000  100.000000  100.000000  100.000000  100.000000  100.000000  100.000000  100.000000  100.000000  100.000000  100.000000  100.000000  100.000000  100.000000  100.000000  100.000000  100.000000  100.000000  100.000000  100.000000  100.000000  100.000000  100.000000  100.000000  100.000000  100.000000  100.000000  100.000000  100.000000  100.000000  100.000000  100.000000  100.000000  100.000000  100.000000  100.000000  100.000000  100.000000  100.000000
   99.998077   99.998077   99.998077   99.998077   99.998085   99.998085   99.998085   99.998085   99.998085   99.998085   99.998085   99.998085   99.998085   99.998085   99.998085   99.998085   99.998093   99.998093   99.998100   99.998100   99.998108   99.998123   99.998146   99.998169   99.998199   99.998238   99.998291   99.998360   99.998444   99.998550   99.998672   99.998817   99.998993   99.999184   99.999390   99.999603   99.999802   99.999954  100.000000  100.000000  100.000000  100.000000  100.000000  100.000000  100.000000  100.000000  100.000000  100.000000  100.000000  100.000000  100.000000  100.000000  100.000000  100.000000  100.000000  100.000000  100.000000  100.000000  100.000000  100.000000  100.000000  100.000000  100.000000  100.000000  100.000000  100.000000  100.000000  100.000000  100.000000  100.000000  100.000000  100.000000  100.000000  100.000000  100.000000  100.000000  100.000000  100.000000  100.000000  100.000000  100.000000  100.000000  100.000000  100.000000  100.000000  100.000000  100.000000  100.000000  100.000000  100.000000  100.000000  100.000000  100.000000  100.000000  100.000000  100.000000  100.000000  100.000000  100.000000  100.000000  100.000000  100.000000
   99.997513   99.997513   99.997513   99.997513   99.997520   99.997520   99.997520   99.997520   99.997520   99.997520   99.997520   99.997520   99.997520   99.997520   99.997520   99.997528   99.997536   99.997536   99.997543   99.997551   99.997566   99.997589   99.997620   99.997665   99.997719   99.997787   99.997864   99.997955   99.998032   99.998131   99.998253   99.998398   99.998573   99.998772   99.998993   99.999229   99.999466   99.999664   99.999825   99.999939  100.000000  100.000000  100.000000  100.000000  100.000000  100.000000  100.000000  100.000000  100.000000  100.000000  100.000000  100.000000  100.000000  100.000000  100.000000  100.000000  100.000000  100.000000  100.000000  100.000000  100.000000  100.000000  100.000000  100.000000  100.000000  100.000000  100.000000  100.000000  100.000000  100.000000  100.000000  100.000000  100.000000  100.000000  100.000000  100.000000  100.000000  100.000000  100.000000  100.000000  100.000000  100.000000  100.000000  100.000000  100.000000  100.000000  100.000000  100.000000  100.000000  100.000000  100.000000  100.000000  100.000000  100.000000  100.000000  100.000000  100.000000  100.000000  100.000000  100.000000  100.000000  100.000000
   99.995804   99.995804   99.995804   99.995804   99.995811   99.995811   99.995811   99.995811   99.995811   99.995811   99.995811   99.995811   99.995811   99.995811   99.995811   99.995819   99.995827   99.995834   99.995842   99.995850   99.995872   99.995903   99.995941   99.995995   99.996071   99.996170   99.996292   99.996452   99.996651   99.996887   99.997154   99.997429   99.997704   99.997948   99.998184   99.998459   99.998756   99.999046   99.999313   99.999550   99.999748   99.999901  100.000000  100.000000  100.000000  100.000000  100.000000  100.000000  100.000000  100.000000  100.000000  100.000000  100.000000  100.000000  100.000000  100.000000  100.000000  100.000000  100.000000  100.000000  100.000000  100.000000  100.000000  100.000000  100.000000  100.000000  100.000000  100.000000  100.000000  100.000000  100.000000  100.000000  100.000000  100.000000  100.000000  100.000000  100.000000  100.000000  100.000000  100.000000  100.000000  100.000000  100.000000  100.000000  100.000000  100.000000  100.000000  100.000000  100.000000  100.000000  100.000000  100.000000  100.000000  100.000000  100.000000  100.000000  100.000000  100.000000  100.000000  100.000000  100.000000  100.000000
   99.992577   99.992577   99.992577   99.992577   99.992584   99.992584   99.992584   99.992584   99.992584   99.992584   99.992584   99.992584   99.992584   99.992592   99.992592   99.992599   99.992615   99.992630   99.992653   99.992683   99.992737   99.992805   99.992897   99.993019   99.993164   99.993309   99.993507   99.993759   99.994072   99.994461   99.994896   99.995300   99.995712   99.996193   99.996719   99.997246   99.997673   99.998039   99.998444   99.998825   99.999168   99.999474   99.999718   99.999893  100.000000  100.000000  100.000000  100.000000  100.000000  100.000000  100.000000  100.000000  100.000000  100.000000  100.000000  100.000000  100.000000  100.000000  100.000000  100.000000  100.000000  100.000000  100.000000  100.000000  100.000000  100.000000  100.000000  100.000000  100.000000  100.000000  100.000000  100.000000  100.000000  100.000000  100.000000  100.000000  100.000000  100.000000  100.000000  100.000000  100.000000  100.000000  100.000000  100.000000  100.000000  100.000000  100.000000  100.000000  100.000000  100.000000  100.000000  100.000000  100.000000  100.000000  100.000000  100.000000  100.000000  100.000000  100.000000  100.000000  100.000000  100.000000
   99.986664   99.986664   99.986664   99.986664   99.986664   99.986671   99.986671   99.986671   99.986671   99.986671   99.986671   99.986671   99.986671   99.986679   99.986687   99.986694   99.986710   99.986732   99.986763   99.986809   99.986885   99.986992   99.987137   99.987335   99.987610   99.987946   99.988312   99.988770   99.989349   99.990059   99.990738   99.991539   99.992416   99.993225   99.994110   99.994972   99.995689   99.996468   99.997192   99.997742   99.998230   99.998718   99.999130   99.999481   99.999756   99.999931  100.000000  100.000000  100.000000  100.000000  100.000000  100.000000  100.000000  100.000000  100.000000  100.000000  100.000000  100.000000  100.000000  100.000000  100.000000  100.000000  100.000000  100.000000  100.000000  100.000000  100.000000  100.000000  100.000000  100.000000  100.000000  100.000000  100.000000  100.000000  100.000000  100.000000  100.000000  100.000000  100.000000  100.000000  100.000000  100.000000  100.000000  100.000000  100.000000  100.000000  100.000000  100.000000  100.000000  100.000000  100.000000  100.000000  100.000000  100.000000  100.000000  100.000000  100.000000  100.000000  100.000000  100.000000  100.000000  100.000000
   99.976089   99.976089   99.976089   99.976089   99.976089   99.976097   99.976097   99.976097   99.976097   99.976097   99.976097   99.976097   99.976105   99.976112   99.976128   99.976143   99.976166   99.976204   99.976265   99.976349   99.976479   99.976669   99.976936   99.977303   99.977776   99.978340   99.979080   99.980019   99.981026   99.982239   99.983521   99.985008   99.986496   99.988014   99.989609   99.991051   99.992500   99.993774   99.994980   99.995949   99.996887   99.997643   99.998215   99.998764   99.999222   99.999588   99.999847   99.999992  100.000000  100.000000  100.000000  100.000000  100.000000  100.000000  100.000000  100.000000  100.000000  100.000000  100.000000  100.000000  100.000000  100.000000  100.000000  100.000000  100.000000  100.000000  100.000000  100.000000  100.000000  100.000000  100.000000  100.000000  100.000000  100.000000  100.000000  100.000000  100.000000  100.000000  100.000000  100.000000  100.000000  100.000000  100.000000  100.000000  100.000000  100.000000  100.000000  100.000000  100.000000  100.000000  100.000000  100.000000  100.000000  100.000000  100.000000  100.000000  100.000000  100.000000  100.000000  100.000000  100.000000  100.000000
   99.957634   99.957634   99.957634   99.957634   99.957634   99.957634   99.957634   99.957634   99.957634   99.957634   99.957642   99.957642   99.957649   99.957664   99.957687   99.957718   99.957771   99.957848   99.957962   99.958130   99.958382   99.958740   99.959206   99.959846   99.960716   99.961769   99.963135   99.964714   99.966591   99.968727   99.971115   99.973679   99.976349   99.979103   99.981804   99.984451   99.986946   99.989220   99.991226   99.993011   99.994583   99.995804   99.996918   99.997749   99.998398   99.998962   99.999420   99.999756   99.999947  100.000000  100.000000  100.000000  100.000000  100.000000  100.000000  100.000000  100.000000  100.000000  100.000000  100.000000  100.000000  100.000000  100.000000  100.000000  100.000000  100.000000  100.000000  100.000000  100.000000  100.000000  100.000000  100.000000  100.000000  100.000000  100.000000  100.000000  100.000000  100.000000  100.000000  100.000000  100.000000  100.000000  100.000000  100.000000  100.000000  100.000000  100.000000  100.000000  100.000000  100.000000  100.000000  100.000000  100.000000  100.000000  100.000000  100.000000  100.000000  100.000000  100.000000  100.000000  100.000000  100.000000
   99.926216   99.926216   99.926216   99.926216   99.926216   99.926216   99.926216   99.926216   99.926216   99.926224   99.926224   99.926231   99.926247   99.926270   99.926308   99.926361   99.926445   99.926575   99.926773   99.927071   99.927513   99.928146   99.928986   99.930138   99.931618   99.933525   99.935875   99.938683   99.941956   99.945694   99.949852   99.954315   99.959007   99.963821   99.968544   99.973167   99.977493   99.981499   99.985016   99.988083   99.990700   99.992897   99.994736   99.996094   99.997253   99.998055   99.998734   99.999275   99.999672   99.999916  100.000000  100.000000  100.000000  100.000000  100.000000  100.000000  100.000000  100.000000  100.000000  100.000000  100.000000  100.000000  100.000000  100.000000  100.000000  100.000000  100.000000  100.000000  100.000000  100.000000  100.000000  100.000000  100.000000  100.000000  100.000000  100.000000  100.000000  100.000000  100.000000  100.000000  100.000000  100.000000  100.000000  100.000000  100.000000  100.000000  100.000000  100.000000  100.000000  100.000000  100.000000  100.000000  100.000000  100.000000  100.000000  100.000000  100.000000  100.000000  100.000000  100.000000  100.000000  100.000000
   99.873772   99.873772   99.873772   99.873772   99.873772   99.873772   99.873772   99.873772   99.873772   99.873779   99.873787   99.873795   99.873817   99.873856   99.873917   99.874008   99.874153   99.874390   99.874741   99.875267   99.876022   99.877083   99.878555   99.880524   99.883072   99.886299   99.890297   99.895119   99.900764   99.907181   99.914299   99.921997   99.930061   99.938324   99.946495   99.954422   99.961861   99.968681   99.974747   99.979988   99.984474   99.988129   99.991127   99.993469   99.995323   99.996758   99.997787   99.998558   99.999161   99.999611   99.999893  100.000000  100.000000  100.000000  100.000000  100.000000  100.000000  100.000000  100.000000  100.000000  100.000000  100.000000  100.000000  100.000000  100.000000  100.000000  100.000000  100.000000  100.000000  100.000000  100.000000  100.000000  100.000000  100.000000  100.000000  100.000000  100.000000  100.000000  100.000000  100.000000  100.000000  100.000000  100.000000  100.000000  100.000000  100.000000  100.000000  100.000000  100.000000  100.000000  100.000000  100.000000  100.000000  100.000000  100.000000  100.000000  100.000000  100.000000  100.000000  100.000000  100.000000  100.000000
   99.788200   99.788200   99.788200   99.788200   99.788200   99.788200   99.788200   99.788208   99.788208   99.788216   99.788231   99.788254   99.788292   99.788345   99.788445   99.788605   99.788857   99.789238   99.789825   99.790703   99.791954   99.793732   99.796173   99.799431   99.803673   99.809074   99.815765   99.823830   99.833290   99.844086   99.856064   99.869019   99.882637   99.896545   99.910370   99.923729   99.936295   99.947769   99.957985   99.966850   99.974350   99.980522   99.985458   99.989403   99.992371   99.994698   99.996338   99.997604   99.998421   99.999084   99.999573   99.999878  100.000000  100.000000  100.000000  100.000000  100.000000  100.000000  100.000000  100.000000  100.000000  100.000000  100.000000  100.000000  100.000000  100.000000  100.000000  100.000000  100.000000  100.000000  100.000000  100.000000  100.000000  100.000000  100.000000  100.000000  100.000000  100.000000  100.000000  100.000000  100.000000  100.000000  100.000000  100.000000  100.000000  100.000000  100.000000  100.000000  100.000000  100.000000  100.000000  100.000000  100.000000  100.000000  100.000000  100.000000  100.000000  100.000000  100.000000  100.000000  100.000000  100.000000
   99.651665   99.651665   99.651665   99.651665   99.651665   99.651665   99.651665   99.651665   99.651672   99.651680   99.651703   99.651733   99.651794   99.651886   99.652039   99.652290   99.652695   99.653328   99.654274   99.655685   99.657715   99.660591   99.664528   99.669823   99.676727   99.685539   99.696472   99.709663   99.725182   99.742935   99.762695   99.784065   99.806557   99.829559   99.852432   99.874550   99.895325   99.914337   99.931236   99.945900   99.958229   99.968391   99.976509   99.982864   99.987724   99.991425   99.994087   99.996002   99.997437   99.998352   99.999062   99.999565   99.999886  100.000000  100.000000  100.000000  100.000000  100.000000  100.000000  100.000000  100.000000  100.000000  100.000000  100.000000  100.000000  100.000000  100.000000  100.000000  100.000000  100.000000  100.000000  100.000000  100.000000  100.000000  100.000000  100.000000  100.000000  100.000000  100.000000  100.000000  100.000000  100.000000  100.000000  100.000000  100.000000  100.000000  100.000000  100.000000  100.000000  100.000000  100.000000  100.000000  100.000000  100.000000  100.000000  100.000000  100.000000  100.000000  100.000000  100.000000  100.000000  100.000000
   99.438576   99.438576   99.438576   99.438576   99.438576   99.438576   99.438576   99.438576   99.438583   99.438599   99.438629   99.438675   99.438766   99.438919   99.439156   99.439545   99.440178   99.441162   99.442650   99.444862   99.448059   99.452583   99.458809   99.467178   99.478165   99.492195   99.509651   99.530785   99.555717   99.584297   99.616173   99.650726   99.687134   99.724419   99.761520   99.797394   99.831131   99.861954   99.889374   99.913109   99.933083   99.949486   99.962624   99.972824   99.980659   99.986481   99.990669   99.993683   99.995834   99.997375   99.998344   99.999069   99.999580   99.999893  100.000000  100.000000  100.000000  100.000000  100.000000  100.000000  100.000000  100.000000  100.000000  100.000000  100.000000  100.000000  100.000000  100.000000  100.000000  100.000000  100.000000  100.000000  100.000000  100.000000  100.000000  100.000000  100.000000  100.000000  100.000000  100.000000  100.000000  100.000000  100.000000  100.000000  100.000000  100.000000  100.000000  100.000000  100.000000  100.000000  100.000000  100.000000  100.000000  100.000000  100.000000  100.000000  100.000000  100.000000  100.000000  100.000000  100.000000  100.000000
   99.113388   99.113388   99.113388   99.113388   99.113388   99.113388   99.113388   99.113388   99.113403   99.113426   99.113464   99.113541   99.113670   99.113892   99.114250   99.114853   99.115822   99.117310   99.119583   99.122971   99.127876   99.134819   99.144417   99.157364   99.174400   99.196251   99.223503   99.256638   99.295822   99.340866   99.391243   99.445976   99.503746   99.562981   99.621964   99.679039   99.732704   99.781746   99.825317   99.862999   99.894707   99.920700   99.941452   99.957588   99.969856   99.978973   99.985565   99.990288   99.993538   99.995819   99.997406   99.998383   99.999100   99.999603   99.999893  100.000000  100.000000  100.000000  100.000000  100.000000  100.000000  100.000000  100.000000  100.000000  100.000000  100.000000  100.000000  100.000000  100.000000  100.000000  100.000000  100.000000  100.000000  100.000000  100.000000  100.000000  100.000000  100.000000  100.000000  100.000000  100.000000  100.000000  100.000000  100.000000  100.000000  100.000000  100.000000  100.000000  100.000000  100.000000  100.000000  100.000000  100.000000  100.000000  100.000000  100.000000  100.000000  100.000000  100.000000  100.000000  100.000000  100.000000
   98.628212   98.628212   98.628212   98.628212   98.628212   98.628220   98.628220   98.628227   98.628242   98.628273   98.628334   98.628448   98.628639   98.628960   98.629501   98.630394   98.631813   98.634033   98.637405   98.642448   98.649773   98.660179   98.674614   98.694168   98.719986   98.753204   98.794823   98.845604   98.905876   98.975426   99.053406   99.138359   99.228210   99.320457   99.412415   99.501434   99.585136   99.661583   99.729477   99.788132   99.837433   99.877792   99.909958   99.934982   99.953934   99.967972   99.978127   99.985260   99.990273   99.993637   99.995941   99.997520   99.998451   99.999138   99.999603   99.999878  100.000000  100.000000  100.000000  100.000000  100.000000  100.000000  100.000000  100.000000  100.000000  100.000000  100.000000  100.000000  100.000000  100.000000  100.000000  100.000000  100.000000  100.000000  100.000000  100.000000  100.000000  100.000000  100.000000  100.000000  100.000000  100.000000  100.000000  100.000000  100.000000  100.000000  100.000000  100.000000  100.000000  100.000000  100.000000  100.000000  100.000000  100.000000  100.000000  100.000000  100.000000  100.000000  100.000000  100.000000  100.000000  100.000000
   97.920654   97.920654   97.920654   97.920654   97.920654   97.920662   97.920670   97.920677   97.920708   97.920753   97.920837   97.920998   97.921265   97.921730   97.922523   97.923790   97.925827   97.929024   97.933907   97.941208   97.951866   97.967072   97.988251   98.017052   98.055229   98.104584   98.166702   98.242821   98.333549   98.438652   98.556938   98.686150   98.823135   98.964020   99.104630   99.240791   99.368805   99.485664   99.589355   99.678818   99.753937   99.815315   99.864204   99.902130   99.930862   99.952072   99.967316   99.978127   99.985527   99.990593   99.993942   99.996162   99.997650   99.998497   99.999107   99.999527   99.999779   99.999916   99.999992  100.000000  100.000000  100.000000  100.000000  100.000000  100.000000  100.000000  100.000000  100.000000  100.000000  100.000000  100.000000  100.000000  100.000000  100.000000  100.000000  100.000000  100.000000  100.000000  100.000000  100.000000  100.000000  100.000000  100.000000  100.000000  100.000000  100.000000  100.000000  100.000000  100.000000  100.000000  100.000000  100.000000  100.000000  100.000000  100.000000  100.000000  100.000000  100.000000  100.000000  100.000000  100.000000  100.000000
   96.912117   96.912117   96.912117   96.912117   96.912117   96.912125   96.912132   96.912148   96.912186   96.912254   96.912376   96.912598   96.912971   96.913620   96.914703   96.916489   96.919342   96.923813   96.930672   96.940971   96.956070   96.977699   97.007973   97.049332   97.104424   97.176010   97.266579   97.378143   97.511772   97.667297   97.843040   98.035698   98.240494   98.451569   98.662453   98.866745   99.058754   99.233932   99.389175   99.522942   99.635040   99.726517   99.799232   99.855583   99.898132   99.929520   99.952133   99.967987   99.978912   99.986290   99.991150   99.994339   99.996376   99.997704   99.998428   99.998947   99.999298   99.999527   99.999657   99.999733   99.999771   99.999794   99.999802   99.999809   99.999817   99.999817   99.999817   99.999825   99.999825   99.999825   99.999825   99.999825   99.999825   99.999825   99.999825   99.999825   99.999825   99.999825   99.999825   99.999825   99.999825   99.999825   99.999825   99.999825   99.999825   99.999825   99.999825   99.999825   99.999825   99.999825   99.999825   99.999825   99.999825   99.999825   99.999825   99.999825   99.999825   99.999825   99.999825   99.999825   99.999825   99.999825
   95.507263   95.507263   95.507263   95.507263   95.507263   95.507271   95.507286   95.507301   95.507347   95.507439   95.507614   95.507919   95.508415   95.509285   95.510742   95.513153   95.517029   95.523125   95.532501   95.546631   95.567436   95.597397   95.639511   95.697357   95.774879   95.876167   96.005112   96.164902   96.357414   96.582703   96.838516   97.120148   97.420509   97.730759   98.041122   98.341904   98.624458   98.881973   99.109856   99.305840   99.469788   99.603310   99.709229   99.791138   99.852921   99.898392   99.931091   99.953995   99.969734   99.980293   99.987251   99.991753   99.994637   99.996407   99.997536   99.998138   99.998558   99.998833   99.999008   99.999107   99.999176   99.999214   99.999237   99.999245   99.999252   99.999260   99.999260   99.999260   99.999260   99.999260   99.999260   99.999260   99.999260   99.999260   99.999260   99.999260   99.999260   99.999260   99.999260   99.999260   99.999260   99.999260   99.999260   99.999260   99.999260   99.999260   99.999260   99.999260   99.999260   99.999260   99.999260   99.999260   99.999260   99.999260   99.999260   99.999260   99.999260   99.999260   99.999260   99.999260   99.999260   99.999260
   93.595085   93.595085   93.595085   93.595085   93.595093   93.595100   93.595123   93.595154   93.595215   93.595337   93.595558   93.595947   93.596611   93.597755   93.599655   93.602814   93.607918   93.615974   93.628433   93.647247   93.675102   93.715401   93.772400   93.851135   93.957344   94.097054   94.276161   94.499687   94.770844   95.090286   95.455177   95.858887   96.291130   96.738800   97.187210   97.621887   98.029922   98.401276   98.729279   99.010742   99.245667   99.436523   99.587593   99.704178   99.791931   99.856415   99.902649   99.935074   99.957245   99.972122   99.981865   99.988098   99.992096   99.994553   99.996033   99.996971   99.997551   99.997856   99.998024   99.998138   99.998215   99.998260   99.998283   99.998299   99.998306   99.998314   99.998314   99.998314   99.998314   99.998314   99.998314   99.998314   99.998314   99.998314   99.998314   99.998314   99.998314   99.998314   99.998314   99.998314   99.998314   99.998314   99.998314   99.998314   99.998314   99.998314   99.998314   99.998314   99.998314   99.998314   99.998314   99.998314   99.998314   99.998314   99.998314   99.998314   99.998314   99.998314   99.998314   99.998314   99.998314   99.998314
   91.052269   91.052269   91.052269   91.052269   91.052277   91.052292   91.052315   91.052353   91.052437   91.052589   91.052864   91.053345   91.054222   91.055626   91.058067   91.062057   91.068588   91.078918   91.094925   91.119225   91.155388   91.208008   91.282906   91.387070   91.528564   91.716194   91.958672   92.263809   92.637108   93.080368   93.590370   94.158028   94.768684   95.403099   96.039482   96.656364   97.234833   97.760262   98.223221   98.619423   98.949188   99.216370   99.427307   99.589699   99.711678   99.801102   99.865150   99.909966   99.940582   99.961052   99.974426   99.983009   99.988419   99.991745   99.993759   99.995010   99.995667   99.996048   99.996300   99.996468   99.996574   99.996635   99.996674   99.996696   99.996704   99.996712   99.996712   99.996712   99.996712   99.996712   99.996712   99.996712   99.996712   99.996712   99.996712   99.996712   99.996712   99.996712   99.996712   99.996712   99.996712   99.996712   99.996712   99.996712   99.996712   99.996712   99.996712   99.996712   99.996712   99.996712   99.996712   99.996712   99.996712   99.996712   99.996712   99.996712   99.996712   99.996712   99.996712   99.996712   99.996712   99.996712
   87.748795   87.748795   87.748795   87.748795   87.748802   87.748817   87.748848   87.748894   87.748985   87.749168   87.749504   87.750099   87.751122   87.752892   87.755867   87.760803   87.768837   87.781616   87.801521   87.831917   87.877373   87.943932   88.039284   88.172928   88.355988   88.600868   88.920364   89.326431   89.828194   90.429848   91.128319   91.911766   92.759377   93.643066   94.530800   95.391052   96.196388   96.926025   97.566879   98.113510   98.566933   98.933144   99.221420   99.442734   99.608604   99.729958   99.816696   99.877281   99.918648   99.946243   99.964279   99.975784   99.983032   99.987473   99.990158   99.991737   99.992699   99.993210   99.993507   99.993698   99.993813   99.993881   99.993919   99.993942   99.993950   99.993958   99.993958   99.993958   99.993958   99.993958   99.993958   99.993958   99.993958   99.993958   99.993958   99.993958   99.993958   99.993958   99.993958   99.993958   99.993958   99.993958   99.993958   99.993958   99.993958   99.993958   99.993958   99.993958   99.993958   99.993958   99.993958   99.993958   99.993958   99.993958   99.993958   99.993958   99.993958   99.993958   99.993958   99.993958   99.993958   99.993958
   83.556740   83.556740   83.556740   83.556747   83.556747   83.556763   83.556786   83.556854   83.556976   83.557190   83.557549   83.558243   83.559456   83.561539   83.565079   83.570938   83.580498   83.595749   83.619644   83.656326   83.711502   83.792816   83.910202   84.076088   84.305420   84.615356   85.024261   85.550171   86.208008   87.006371   87.943718   89.005249   90.161964   91.373016   92.591454   93.771164   94.872704   95.867241   96.737274   97.476341   98.086960   98.578308   98.963791   99.258888   99.479446   99.640503   99.755379   99.835503   99.890121   99.926544   99.950302   99.965454   99.974960   99.980751   99.984207   99.986275   99.987488   99.988167   99.988556   99.988800   99.988945   99.989029   99.989082   99.989105   99.989113   99.989120   99.989120   99.989120   99.989120   99.989120   99.989120   99.989120   99.989120   99.989120   99.989120   99.989120   99.989120   99.989120   99.989120   99.989120   99.989120   99.989120   99.989120   99.989120   99.989120   99.989120   99.989120   99.989120   99.989120   99.989120   99.989120   99.989120   99.989120   99.989120   99.989120   99.989120   99.989120   99.989120   99.989120   99.989120   99.989120   99.989120
   78.360939   78.360939   78.360947   78.360947   78.360954   78.360977   78.361015   78.361092   78.361229   78.361450   78.361855   78.362663   78.364021   78.366341   78.370377   78.377037   78.387993   78.405510   78.433105   78.475693   78.540169   78.635826   78.775047   78.973587   79.250946   79.630180   80.137070   80.798279   81.637856   82.672394   83.904671   85.317680   86.871590   88.506813   90.154076   91.746170   93.227310   94.558189   95.716454   96.695457   97.500542   98.145653   98.649887   99.034653   99.321465   99.530388   99.679169   99.782745   99.853279   99.900261   99.930870   99.950386   99.962570   99.970039   99.974487   99.977119   99.978615   99.979523   99.980034   99.980316   99.980492   99.980583   99.980637   99.980659   99.980675   99.980675   99.980675   99.980675   99.980675   99.980675   99.980675   99.980675   99.980675   99.980675   99.980675   99.980675   99.980675   99.980675   99.980675   99.980675   99.980675   99.980675   99.980675   99.980675   99.980675   99.980675   99.980675   99.980675   99.980675   99.980675   99.980675   99.980675   99.980675   99.980675   99.980675   99.980675   99.980675   99.980675   99.980675   99.980675   99.980675   99.980675
   72.071465   72.071465   72.071465   72.071472   72.071480   72.071495   72.071533   72.071602   72.071732   72.071976   72.072441   72.073280   72.074738   72.077293   72.081673   72.088974   72.100983   72.120293   72.150833   72.198189   72.270370   72.378258   72.536591   72.764664   73.086945   73.533524   74.139557   74.943588   75.983597   77.290131   78.876137   80.725296   82.783691   84.963226   87.160240   89.276794   91.235153   92.983521   94.495354   95.765442   96.804192   97.632607   98.277512   98.767960   99.132515   99.397469   99.585793   99.716713   99.805771   99.865028   99.903610   99.928192   99.943520   99.952904   99.958504   99.961777   99.963676   99.964760   99.965408   99.965752   99.965950   99.966064   99.966125   99.966156   99.966171   99.966179   99.966179   99.966179   99.966179   99.966179   99.966179   99.966179   99.966179   99.966179   99.966179   99.966179   99.966179   99.966179   99.966179   99.966179   99.966179   99.966179   99.966179   99.966179   99.966179   99.966179   99.966179   99.966179   99.966179   99.966179   99.966179   99.966179   99.966179   99.966179   99.966179   99.966179   99.966179   99.966179   99.966179   99.966179   99.966179   99.966179
   64.636559   64.636559   64.636559   64.636559   64.636566   64.636581   64.636620   64.636688   64.636826   64.637085   64.637558   64.638405   64.639923   64.642578   64.647110   64.654716   64.667236   64.687500   64.719681   64.769882   64.846825   64.962730   65.134338   65.384140   65.741623   66.244362   66.938667   67.878670   69.122787   70.725296   72.720779   75.101807   77.797371   80.672806   83.569328   86.343956   88.890694   91.144936   93.078438   94.690964   96.001579   97.041397   97.847435   98.458305   98.911118   99.239479   99.472473   99.634232   99.744133   99.817207   99.864761   99.895050   99.913940   99.925468   99.932365   99.936417   99.938736   99.940063   99.940811   99.941231   99.941475   99.941605   99.941681   99.941719   99.941734   99.941742   99.941742   99.941742   99.941742   99.941742   99.941742   99.941742   99.941742   99.941742   99.941742   99.941742   99.941742   99.941742   99.941742   99.941742   99.941742   99.941742   99.941742   99.941742   99.941742   99.941742   99.941742   99.941742   99.941742   99.941742   99.941742   99.941742   99.941742   99.941742   99.941742   99.941742   99.941742   99.941742   99.941742   99.941742   99.941742   99.941742
   56.054153   56.054153   56.054153   56.054157   56.054165   56.054180   56.054214   56.054287   56.054417   56.054665   56.055122   56.055954   56.057442   56.060036   56.064480   56.071968   56.084328   56.104408   56.136433   56.186646   56.264084   56.381596   56.557163   56.815540   57.190247   57.725887   58.480457   59.526871   60.951851   62.848213   65.294151   68.312645   71.816589   75.586761   79.370941   82.960716   86.217422   89.067574   91.487801   93.489265   95.104843   96.379593   97.363464   98.106598   98.656006   99.053604   99.335304   99.530663   99.663292   99.751434   99.808746   99.845261   99.868034   99.881912   99.890221   99.895096   99.897888   99.899475   99.900352   99.900864   99.901154   99.901306   99.901382   99.901421   99.901443   99.901451   99.901451   99.901451   99.901451   99.901451   99.901451   99.901451   99.901451   99.901451   99.901451   99.901451   99.901451   99.901451   99.901451   99.901451   99.901451   99.901451   99.901451   99.901451   99.901451   99.901451   99.901451   99.901451   99.901451   99.901451   99.901451   99.901451   99.901451   99.901451   99.901451   99.901451   99.901451   99.901451   99.901451   99.901451   99.901451   99.901451
   46.380516   46.380516   46.380520   46.380524   46.380531   46.380547   46.380581   46.380646   46.380764   46.380985   46.381401   46.382164   46.383518   46.385883   46.389957   46.396824   46.408199   46.426735   46.456413   46.503178   46.575710   46.686546   46.853592   47.102089   47.467422   47.998764   48.763885   49.854927   51.393581   53.530857   56.428188   60.193817   64.747925   69.691101   74.603867   79.188614   83.279068   86.806824   89.766792   92.191681   94.134888   95.659737   96.831779   97.714302   98.365295   98.835648   99.168488   99.399117   99.555611   99.659584   99.727196   99.770256   99.797096   99.813484   99.823296   99.829033   99.832321   99.834183   99.835220   99.835808   99.836121   99.836288   99.836372   99.836418   99.836449   99.836456   99.836464   99.836464   99.836464   99.836464   99.836464   99.836464   99.836464   99.836464   99.836464   99.836464   99.836464   99.836464   99.836464   99.836464   99.836464   99.836464   99.836464   99.836464   99.836464   99.836464   99.836464   99.836464   99.836464   99.836464   99.836464   99.836464   99.836464   99.836464   99.836464   99.836464   99.836464   99.836464   99.836464   99.836464   99.836464   99.836464
   35.734226   35.734226   35.734230   35.734234   35.734238   35.734253   35.734280   35.734329   35.734432   35.734615   35.734962   35.735592   35.736713   35.738686   35.742081   35.747814   35.757336   35.772892   35.797886   35.837429   35.899067   35.993843   36.137810   36.354153   36.676403   37.153233   37.855888   38.889465   40.409466   42.642059   45.893616   50.491577   56.496792   63.036560   69.388443   75.159935   80.191429   84.453072   87.980896   90.842667   93.119766   94.897652   96.259270   97.281998   98.035110   98.578644   98.962990   99.229218   99.409828   99.529816   99.607864   99.657578   99.688576   99.707520   99.718842   99.725471   99.729286   99.731430   99.732620   99.733276   99.733635   99.733826   99.733925   99.733978   99.734009   99.734016   99.734024   99.734024   99.734024   99.734024   99.734032   99.734032   99.734032   99.734032   99.734032   99.734032   99.734032   99.734032   99.734032   99.734032   99.734032   99.734032   99.734032   99.734032   99.734032   99.734032   99.734032   99.734032   99.734032   99.734032   99.734032   99.734032   99.734032   99.734032   99.734032   99.734032   99.734032   99.734032   99.734032   99.734032   99.734032   99.734032
   24.294418   24.294418   24.294418   24.294422   24.294426   24.294436   24.294455   24.294493   24.294567   24.294699   24.294943   24.295399   24.296206   24.297617   24.300058   24.304186   24.311060   24.322304   24.340418   24.369169   24.414156   24.483685   24.589972   24.751038   24.993677   25.358334   25.907682   26.742006   28.028381   30.055683   33.330494   38.683437   46.983471   55.815063   63.983913   71.105515   77.131096   82.131172   86.213722   89.495277   92.090706   94.108910   95.650711   96.806946   97.657600   98.271263   98.705154   99.005722   99.209694   99.345245   99.433464   99.489677   99.524750   99.546181   99.558998   99.566513   99.570831   99.573257   99.574608   99.575340   99.575745   99.575958   99.576065   99.576126   99.576157   99.576164   99.576172   99.576172   99.576172   99.576172   99.576180   99.576180   99.576180   99.576180   99.576180   99.576180   99.576180   99.576180   99.576180   99.576180   99.576180   99.576180   99.576180   99.576180   99.576180   99.576180   99.576180   99.576180   99.576180   99.576180   99.576180   99.576180   99.576180   99.576180   99.576180   99.576180   99.576180   99.576180   99.576180   99.576180   99.576180   99.576180
   12.292817   12.292817   12.292817   12.292818   12.292820   12.292825   12.292835   12.292854   12.292892   12.292962   12.293092   12.293327   12.293749   12.294488   12.295765   12.297928   12.301532   12.307436   12.316962   12.332111   12.355878   12.392726   12.449294   12.535505   12.666410   12.865410   13.170406   13.646510   14.415152   15.728208   18.179523   23.378078   36.313896   48.559795   58.879787   67.377205   74.330208   79.988266   84.555412   88.201859   91.074684   93.303818   95.004974   96.280281   97.218628   97.895805   98.374878   98.706978   98.932503   99.082504   99.180183   99.242485   99.281387   99.305168   99.319405   99.327751   99.332550   99.335251   99.336739   99.337563   99.337997   99.338226   99.338348   99.338409   99.338440   99.338455   99.338463   99.338463   99.338463   99.338470   99.338470   99.338470   99.338470   99.338470   99.338470   99.338470   99.338470   99.338470   99.338470   99.338470   99.338470   99.338470   99.338470   99.338470   99.338470   99.338470   99.338470   99.338470   99.338470   99.338470   99.338470   99.338470   99.338470   99.338470   99.338470   99.338470   99.338470   99.338470   99.338470   99.338470   99.338470   99.338470
    0.000000    0.000000    0.000000    0.000000    0.000000    0.000000    0.000000    0.000000    0.000000    0.000000    0.000000    0.000000    0.000000    0.000000    0.000000    0.000000    0.000000    0.000000    0.000000    0.000000    0.000000    0.000000    0.000000    0.000000    0.000000    0.000000    0.000000    0.000000    0.000000    0.000000    0.000000    0.000000   25.843281   42.605370   54.880432   64.423309   72.037796   78.163261   83.081818   87.000458   90.086136   92.481308   94.310760   95.683784   96.695282   97.426186   97.943947   98.303314   98.547653   98.710365   98.816429   98.884148   98.926476   98.952370   98.967888   98.976990   98.982216   98.985168   98.986794   98.987679   98.988159   98.988411   98.988548   98.988609   98.988640   98.988647   98.988655   98.988663   98.988663   98.988663   98.988663   98.988663   98.988663   98.988663   98.988663   98.988663   98.988663   98.988663   98.988663   98.988663   98.988663   98.988663   98.988663   98.988663   98.988663   98.988663   98.988663   98.988663   98.988663   98.988663   98.988663   98.988663   98.988663   98.988663   98.988663   98.988663   98.988663   98.988663   98.988663   98.988663   98.988663   98.988663
    0.000000    0.000000    0.000000    0.000000    0.000000    0.000000    0.000000    0.000000    0.000000    0.000000    0.000000    0.000000    0.000000    0.000000    0.000000    0.000000    0.000000    0.000000    0.000000    0.000000    0.000000    0.000000    0.000000    0.000000    0.000000    0.000000    0.000000    0.000000    0.000000    0.000000    0.000000    0.000000   24.100952   40.573299   52.915955   62.623047   70.425346   76.736519   81.827408   85.899513   89.117424   91.623306   93.542763   94.987160   96.053802   96.826248   97.374527   97.755768   98.015427   98.188583   98.301636   98.373894   98.419113   98.446800   98.463417   98.473167   98.478775   98.481934   98.483681   98.484634   98.485146   98.485413   98.485558   98.485626   98.485657   98.485672   98.485680   98.485687   98.485687   98.485687   98.485687   98.485687   98.485687   98.485695   98.485695   98.485695   98.485695   98.485695   98.485695   98.485695   98.485695   98.485695   98.485695   98.485695   98.485695   98.485695   98.485695   98.485695   98.485695   98.485695   98.485695   98.485695   98.485695   98.485695   98.485695   98.485695   98.485695   98.485695   98.485695   98.485695   98.485695   98.485695
    0.000000    0.000000    0.000000    0.000000    0.000000    0.000000    0.000000    0.999510    0.999803    1.160195    1.416030    1.679906    1.924228    2.140207    2.326350    2.484874    2.620398    2.739369    2.849768    2.961005    3.083969    3.231248    3.417550    3.660474    3.981890    4.410573    4.987563    5.777807    6.897367    8.583523   11.394923   16.847784   29.648121   42.113316   52.885014   61.935551   69.465965   75.682320   80.763802   84.867012   88.132881   90.690697   92.659164   94.146339   95.248322   96.048744   96.618347   97.015350   97.286293   97.467308   97.585686   97.661461   97.708939   97.738052   97.755531   97.765816   97.771736   97.775070   97.776909   97.777908   97.778458   97.778740   97.778893   97.778961   97.778999   97.779022   97.779022   97.779030   97.779030   97.779037   97.779037   97.779037   97.779037   97.779037   97.779045   97.779045   97.779045   97.779045   97.779045   97.779045   97.779045   97.779045   97.779045   97.779045   97.779045   97.779045   97.779045   97.779045   97.779045   97.779045   97.779045   97.779045   97.779045   97.779045   97.779045   97.779045   97.779045   97.779045   97.779045   97.779045   97.779045   97.779045
    0.000000    0.000000    0.000000    0.000000    0.000000    0.000000    0.000000    0.999785    1.598447    2.179494    2.752534    3.291076    3.777364    4.203842    4.570331    4.882019    5.148237    5.381695    5.598020    5.815557    6.055437    6.341930    6.703142    7.172227    7.789488    8.606176    9.691650   11.147207   13.133034   15.920259   19.982624   26.100185   35.098888   44.745781   53.842716   61.945248   68.946251   74.872025   79.800545   83.830460   87.068542   89.623466   91.601524   93.103348   94.220818   95.035378   95.616821   96.023155   96.301125   96.487206   96.609131   96.687294   96.736343   96.766472   96.784592   96.795258   96.801384   96.804848   96.806755   96.807808   96.808365   96.808662   96.808823   96.808899   96.808937   96.808960   96.808968   96.808975   96.808975   96.808983   96.808983   96.808983   96.808983   96.808983   96.808990   96.808990   96.808990   96.808990   96.808990   96.808990   96.808990   96.808990   96.808990   96.808990   96.808990   96.808990   96.808990   96.808990   96.808990   96.808990   96.808990   96.808990   96.808990   96.808990   96.808990   96.808990   96.808990   96.808990   96.808990   96.808990   96.808990   96.808990
    0.000000    0.000000    0.000000    0.000000    0.000000    0.000000    0.000000    1.145884    2.160508    3.101789    3.978781    4.780341    5.495472    6.119371    6.654184    7.108365    7.495807    7.835046    8.148685    8.463107    8.808487    9.219166    9.734371   10.399431   11.267748   12.404133   13.890457   15.835111   18.387678   21.757822   26.224962   32.084492   39.379135   47.269009   55.019115   62.194344   68.586159   74.122040   78.806450   82.687454   85.837952   88.344078   90.297241   91.788147   92.902695   93.718216   94.302299   94.711662   94.992401   95.180763   95.304398   95.383812   95.433739   95.464447   95.482948   95.493843   95.500099   95.503639   95.505592   95.506683   95.507233   95.507530   95.507690   95.507774   95.507820   95.507843   95.507851   95.507858   95.507858   95.507866   95.507866   95.507866   95.507866   95.507866   95.507866   95.507866   95.507866   95.507866   95.507866   95.507866   95.507866   95.507866   95.507866   95.507866   95.507866   95.507866   95.507866   95.507866   95.507866   95.507866   95.507866   95.507866   95.507866   95.507866   95.507866   95.507866   95.507866   95.507866   95.507866   95.507866   95.507866   95.507866
    0.000000    0.000000    0.000000    0.000000    0.000000    0.000000    0.000000    1.377688    2.690779    3.924577    5.066559    6.102773    7.022923    7.823493    8.508593    9.089663    9.584676   10.017282   10.416108   10.814338   11.249630   11.764355   12.406127   13.228648   14.292975   15.669394   17.440216   19.703516   22.576685   26.195448   30.696115   36.156517   42.469563   49.217945   55.950256   62.323921   68.124535   73.240929   77.635498   81.320572   84.341415   86.763657   88.663933   90.122528   91.217949   92.022552   92.600853   93.007370   93.286835   93.474785   93.598358   93.677925   93.727989   93.758934   93.777512   93.788483   93.794800   93.798386   93.800369   93.801414   93.802002   93.802299   93.802452   93.802536   93.802574   93.802597   93.802605   93.802605   93.802612   93.802612   93.802612   93.802620   93.802620   93.802620   93.802620   93.802620   93.802620   93.802620   93.802620   93.802620   93.802620   93.802620   93.802620   93.802620   93.802620   93.802620   93.802620   93.802620   93.802620   93.802620   93.802620   93.802620   93.802620   93.802620   93.802620   93.802620   93.802620   93.802620   93.802620   93.802620   93.802620   93.802620
    0.000000    0.000000    0.000000    0.000000    0.000000    0.000000    0.000000    1.602399    3.155312    4.625126    5.986411    7.219813    8.313313    9.263471   10.075722   10.763907   11.349366   11.859942   12.329121   12.795456   13.302328   13.897955   14.635596   15.573831   16.776861   18.314768   20.263536   22.704498   25.721375   29.391956   33.768246   38.838692   44.477528   50.424953   56.381664   62.087254   67.351891   72.057533   76.147324   79.611763   82.476212   84.789719   86.615807   88.024757   89.087524   89.871239   90.436325   90.834648   91.109215   91.294235   91.416161   91.494751   91.544289   91.574890   91.593338   91.604218   91.610512   91.614075   91.616051   91.617111   91.617683   91.617973   91.618126   91.618202   91.618240   91.618263   91.618271   91.618279   91.618279   91.618279   91.618279   91.618286   91.618286   91.618286   91.618286   91.618286   91.618286   91.618286   91.618286   91.618286   91.618286   91.618286   91.618286   91.618286   91.618286   91.618286   91.618286   91.618286   91.618286   91.618286   91.618286   91.618286   91.618286   91.618286   91.618286   91.618286   91.618286   91.618286   91.618286   91.618286   91.618286   91.618286
    0.000000    0.000000    0.000000    0.000000    0.000000    0.000000    0.000000    1.788113    3.528583    5.180967    6.712966    8.100964    9.330932   10.399020   11.311459   12.083844   12.740054   13.311067   13.833962   14.351149   14.909932   15.562273   16.364592   17.377487   18.665092   20.293982   22.331263   24.841391   27.880682   31.487951   35.669460   40.378365   45.496143   50.834980   56.178581   61.325203   66.113724   70.432877   74.219780   77.453369   80.145897   82.334000   84.070343   85.416237   86.435509   87.189774   87.735252   88.120796   88.387146   88.567009   88.685760   88.762428   88.810822   88.840721   88.858780   88.869446   88.875626   88.879120   88.881050   88.882111   88.882660   88.882950   88.883095   88.883179   88.883217   88.883240   88.883247   88.883255   88.883255   88.883255   88.883255   88.883255   88.883255   88.883255   88.883255   88.883255   88.883255   88.883255   88.883255   88.883255   88.883255   88.883255   88.883255   88.883255   88.883255   88.883255   88.883255   88.883255   88.883255   88.883255   88.883255   88.883255   88.883255   88.883255   88.883255   88.883255   88.883255   88.883255   88.883255   88.883255   88.883255   88.883255
    0.000000    0.000000    0.000000    0.000000    0.000000    0.000000    0.000000    1.922178    3.795588    5.576378    7.228510    8.725591   10.052042   11.203549   12.186769   13.018433   13.724088   14.336773   14.895851   15.446078   16.036974   16.722321   17.559633   18.609331   19.933430   21.593460   23.647444   26.145559   29.124170   32.597759   36.548916   40.917992   45.597546   50.438835   55.273888   59.941063   64.304260   68.263153   71.755798   74.756027   77.268105   79.319786   80.955116   82.227684   83.194756   83.912575   84.433075   84.801834   85.057114   85.229828   85.344055   85.417908   85.464577   85.493439   85.510887   85.521202   85.527191   85.530594   85.532463   85.533485   85.534019   85.534309   85.534454   85.534523   85.534554   85.534576   85.534584   85.534592   85.534592   85.534592   85.534592   85.534592   85.534592   85.534592   85.534592   85.534592   85.534592   85.534592   85.534592   85.534592   85.534592   85.534592   85.534592   85.534592   85.534592   85.534592   85.534592   85.534592   85.534592   85.534592   85.534592   85.534592   85.534592   85.534592   85.534592   85.534592   85.534592   85.534592   85.534592   85.534592   85.534592   85.534592
    0.000000    0.000000    0.000000    0.000000    0.000000    0.000000    0.000000    1.999615    3.949325    5.803533    7.524311    9.083763   10.465389   11.664541   12.688046   13.553186   14.286345   14.921555   15.499190   16.064924   16.668922   17.365129   18.210442   19.263527   20.583036   22.224974   24.239151   26.664614   29.524054   32.817520   36.516045   40.556961   44.843304   49.250820   53.642105   57.883385   61.858650   65.479034   68.686546   71.453789   73.780449   75.688072   77.213989   78.405228   79.313072   79.988655   80.479637   80.828194   81.069923   81.233742   81.342232   81.412468   81.456909   81.484413   81.501053   81.510910   81.516617   81.519859   81.521652   81.522629   81.523155   81.523422   81.523560   81.523628   81.523666   81.523689   81.523697   81.523697   81.523697   81.523697   81.523697   81.523697   81.523697   81.523697   81.523697   81.523697   81.523697   81.523697   81.523697   81.523697   81.523697   81.523697   81.523697   81.523697   81.523697   81.523697   81.523697   81.523697   81.523697   81.523697   81.523697   81.523697   81.523697   81.523697   81.523697   81.523697   81.523697   81.523697   81.523697   81.523697   81.523697   81.523697
    0.000000    0.000000    0.000000    0.000000    0.000000    0.000000    0.000000    2.019556    3.988927    5.862073    7.600564    9.176069   10.571807   11.782990   12.816420   13.689409   14.428381   15.067335   15.646488   16.211119   16.810640   17.497732   18.327326   19.355188   20.635862   22.219851   24.149929   26.456770   29.154081   32.233795   35.662136   39.377720   43.293224   47.301682   51.286823   55.135181   58.746933   62.043678   64.972633   67.507179   69.644653   71.402275   72.812065   73.915413   74.758209   75.386681   75.844299   76.169701   76.395721   76.549088   76.650795   76.716690   76.758446   76.784302   76.799957   76.809242   76.814613   76.817673   76.819374   76.820282   76.820778   76.821030   76.821159   76.821228   76.821266   76.821289   76.821297   76.821297   76.821297   76.821297   76.821297   76.821297   76.821297   76.821297   76.821297   76.821297   76.821297   76.821297   76.821297   76.821297   76.821297   76.821297   76.821297   76.821297   76.821297   76.821297   76.821297   76.821297   76.821297   76.821297   76.821297   76.821297   76.821297   76.821297   76.821297   76.821297   76.821297   76.821297   76.821297   76.821297   76.821297   76.821297
    0.000000    0.000000    0.000000    0.000000    0.000000    0.000000    0.000000    1.983940    3.918442    5.758216    7.465532    9.012607   10.382992   11.571978   12.586172   13.442450   14.166527   14.791454   15.356209   15.904500   16.483772   17.144249   17.937805   18.916449   20.130188   21.624205   23.435308   25.587944   28.090069   30.929474   34.071362   37.457893   41.010658   44.636250   48.234489   51.707668   54.969238   57.950287   60.603550   62.904240   64.848640   66.450928   67.738739   68.748558   69.521309   70.098488   70.519379   70.819061   71.027496   71.169067   71.263046   71.323997   71.362640   71.386597   71.401108   71.409714   71.414696   71.417542   71.419121   71.419975   71.420433   71.420662   71.420784   71.420853   71.420891   71.420898   71.420906   71.420906   71.420906   71.420906   71.420906   71.420906   71.420906   71.420906   71.420906   71.420906   71.420906   71.420906   71.420906   71.420906   71.420906   71.420906   71.420906   71.420906   71.420906   71.420906   71.420906   71.420906   71.420906   71.420906   71.420906   71.420906   71.420906   71.420906   71.420906   71.420906   71.420906   71.420906   71.420906   71.420906   71.420906   71.420906
    0.000000    0.000000    0.000000    0.000000    0.000000    0.000000    0.000000    1.896875    3.745898    5.503632    7.134215    8.611386    9.919641   11.054550   12.022401   12.839189   13.529255   14.123870   14.659807   15.178185   15.723435   16.342323   17.082794   17.992441   19.116434   20.494823   22.159290   24.129589   26.410078   28.986914   31.826494   34.875755   38.064850   41.311985   44.530258   47.635124   50.551426   53.218952   55.595840   57.659702   59.406544   60.848209   62.008656   62.919903   63.618153   64.140335   64.521561   64.793304   64.982475   65.111092   65.196526   65.251984   65.287170   65.308998   65.322235   65.330070   65.334618   65.337204   65.338646   65.339424   65.339844   65.340057   65.340172   65.340233   65.340263   65.340279   65.340286   65.340286   65.340286   65.340286   65.340286   65.340286   65.340286   65.340286   65.340286   65.340286   65.340286   65.340286   65.340286   65.340286   65.340286   65.340286   65.340286   65.340286   65.340286   65.340286   65.340286   65.340286   65.340286   65.340286   65.340286   65.340286   65.340286   65.340286   65.340286   65.340286   65.340286   65.340286   65.340286   65.340286   65.340286   65.340286
    0.000000    0.000000    0.000000    0.000000    0.000000    0.000000    0.000000    1.764300    3.482569    5.114266    6.626746    7.996355    9.209145   10.261177   11.158246   11.915072   12.554041   13.103873   13.598319   14.075024   14.574527   15.139305   15.812658   16.637243   17.653149   18.895435   20.391228   22.156630   24.193827   26.488895   29.010803   31.712034   34.531120   37.396954   40.234436   42.970676   45.540813   47.892681   49.989773   51.812302   53.356438   54.632156   55.660110   56.468163   57.087948   57.551895   57.890892   58.132732   58.301212   58.415844   58.492035   58.541523   58.572941   58.592430   58.604256   58.611267   58.615334   58.617645   58.618927   58.619629   58.620003   58.620197   58.620300   58.620354   58.620380   58.620396   58.620399   58.620403   58.620403   58.620403   58.620403   58.620403   58.620403   58.620403   58.620403   58.620403   58.620403   58.620403   58.620403   58.620403   58.620403   58.620403   58.620403   58.620403   58.620403   58.620403   58.620403   58.620403   58.620403   58.620403   58.620403   58.620403   58.620403   58.620403   58.620403   58.620403   58.620403   58.620403   58.620403   58.620403   58.620403   58.620403
    0.000000    0.000000    0.000000    0.000000    0.000000    0.000000    0.000000    1.594074    3.142562    4.609235    5.966700    7.195269    8.283169    9.227042   10.032008   10.711082   11.284142   11.776735   12.218875   12.643995   13.088020   13.588454   14.183365   14.910048   15.803298   16.893251   18.202850   19.745218   21.521276   23.518021   25.707842   28.049286   30.489323   32.967064   35.418465   37.781509   40.000992   42.032417   43.844559   45.420341   46.756313   47.860855   48.751545   49.452206   49.990009   50.392868   50.687420   50.897671   51.044231   51.144009   51.210354   51.253468   51.280838   51.297836   51.308147   51.314266   51.317814   51.319828   51.320950   51.321560   51.321884   51.322056   51.322147   51.322193   51.322216   51.322227   51.322231   51.322231   51.322231   51.322231   51.322231   51.322231   51.322231   51.322231   51.322231   51.322231   51.322231   51.322231   51.322231   51.322231   51.322231   51.322231   51.322231   51.322231   51.322231   51.322231   51.322231   51.322231   51.322231   51.322231   51.322231   51.322231   51.322231   51.322231   51.322231   51.322231   51.322231   51.322231   51.322231   51.322231   51.322231   51.322231
    0.000000    0.000000    0.000000    0.000000    0.000000    0.000000    0.000000    1.397129    2.743088    4.009865    5.179336    6.237555    7.175277    7.989545    8.684429    9.270818    9.765594   10.190583   10.571482   10.936916   11.317604   11.745533   12.253067   12.871790   13.631014   14.555948   15.665570   16.970453   18.470833   20.155241   22.000074   23.970303   26.021444   28.102669   30.160685   32.143932   34.006546   35.711529   37.232845   38.556225   39.678699   40.607178   41.356262   41.945843   42.398605   42.737938   42.986153   43.163425   43.287029   43.371216   43.427208   43.463615   43.486732   43.501083   43.509804   43.514973   43.517971   43.519680   43.520622   43.521137   43.521408   43.521557   43.521633   43.521671   43.521690   43.521698   43.521702   43.521706   43.521706   43.521706   43.521706   43.521706   43.521706   43.521706   43.521706   43.521706   43.521706   43.521706   43.521706   43.521706   43.521706   43.521706   43.521706   43.521706   43.521706   43.521706   43.521706   43.521706   43.521706   43.521706   43.521706   43.521706   43.521706   43.521706   43.521706   43.521706   43.521706   43.521706   43.521706   43.521706   43.521706   43.521706
    0.000000    0.000000    0.000000    0.000000    0.000000    0.000000    0.000000    1.191875    2.305885    3.338557    4.289587    5.152148    5.918785    6.586074    7.156431    7.638159    8.044730    8.393826    8.706370    9.005732    9.316939    9.666046   10.079349   10.582434   11.198965   11.949187   12.848231   13.904377   15.117519   16.478144   17.967018   19.555828   21.208773   22.885075   24.542070   26.138515   27.637735   29.010147   30.234905   31.300550   32.204678   32.952782   33.556553   34.031921   34.397095   34.670883   34.871223   35.014339   35.114162   35.182178   35.227428   35.256851   35.275539   35.287148   35.294201   35.298378   35.300800   35.302181   35.302940   35.303364   35.303593   35.303707   35.303764   35.303795   35.303810   35.303822   35.303822   35.303825   35.303825   35.303825   35.303825   35.303825   35.303825   35.303825   35.303825   35.303825   35.303825   35.303825   35.303825   35.303825   35.303825   35.303825   35.303825   35.303825   35.303825   35.303825   35.303825   35.303825   35.303825   35.303825   35.303825   35.303825   35.303825   35.303825   35.303825   35.303825   35.303825   35.303825   35.303825   35.303825   35.303825   35.303825
    0.000000    0.000000    0.000000    0.000000    0.000000    0.000000    0.000000    1.019554    1.859549    2.615897    3.319052    3.965308    4.545052    5.052469    5.487526    5.855583    6.166435    6.433337    6.672138    6.900582    7.137705    7.403298    7.717304    8.099101    8.566560    9.134916    9.815510   10.614462   11.531560   12.559489   13.683643   14.882623   16.129446   17.393446   18.642570   19.845867   20.975809   22.010197   22.933378   23.736736   24.418447   24.982637   25.438074   25.796743   26.072346   26.279013   26.430277   26.538357   26.613758   26.665136   26.699331   26.721563   26.735693   26.744469   26.749800   26.752960   26.754795   26.755835   26.756414   26.756733   26.756901   26.756989   26.757034   26.757057   26.757069   26.757076   26.757078   26.757080   26.757082   26.757082   26.757082   26.757082   26.757082   26.757082   26.757082   26.757082   26.757082   26.757082   26.757082   26.757082   26.757082   26.757082   26.757082   26.757082   26.757082   26.757082   26.757082   26.757082   26.757082   26.757082   26.757082   26.757082   26.757082   26.757082   26.757082   26.757082   26.757082   26.757082   26.757082   26.757082   26.757082   26.757082
    0.000000    0.000000    0.000000    0.000000    0.000000    0.000000    0.000000    0.999722    1.435090    1.850789    2.281073    2.698726    3.082645    3.422355    3.715093    3.963336    4.173215    4.353463    4.514680    4.668781    4.828570    5.007352    5.218529    5.475101    5.789044    6.170547    6.627164    7.162946    7.777690    8.466451    9.219406   10.022215   10.856829   11.702750   12.538583   13.343666   14.099645   14.791690   15.409365   15.946917   16.403107   16.780708   17.085573   17.325695   17.510229   17.648632   17.749943   17.822340   17.872856   17.907280   17.930193   17.945093   17.954565   17.960447   17.964020   17.966139   17.967371   17.968069   17.968456   17.968668   17.968782   17.968840   17.968870   17.968885   17.968893   17.968897   17.968899   17.968901   17.968901   17.968903   17.968903   17.968903   17.968903   17.968903   17.968903   17.968903   17.968903   17.968903   17.968903   17.968903   17.968903   17.968903   17.968903   17.968903   17.968903   17.968903   17.968903   17.968903   17.968903   17.968903   17.968903   17.968903   17.968903   17.968903   17.968903   17.968903   17.968903   17.968903   17.968903   17.968903   17.968903   17.968903
    0.000000    0.000000    0.000000    0.000000    0.000000    0.000000    0.000000    0.999543    0.999843    1.012663    1.175515    1.369919    1.558212    1.727625    1.874513    1.999386    2.105070    2.195862    2.277057    2.354635    2.435029    2.524921    2.631044    2.759923    2.917564    3.109072    3.338223    3.607033    3.915387    4.260789    4.638312    5.040755    5.459079    5.883019    6.301865    6.705279    7.084076    7.430841    7.740344    8.009709    8.238326    8.427568    8.580366    8.700726    8.793231    8.862616    8.913410    8.949711    8.975040    8.992303    9.003795    9.011269    9.016019    9.018968    9.020760    9.021824    9.022442    9.022792    9.022986    9.023092    9.023149    9.023178    9.023192    9.023200    9.023204    9.023206    9.023208    9.023208    9.023209    9.023209    9.023210    9.023210    9.023210    9.023210    9.023210    9.023210    9.023210    9.023210    9.023210    9.023210    9.023210    9.023210    9.023210    9.023210    9.023210    9.023210    9.023210    9.023210    9.023210    9.023210    9.023210    9.023210    9.023210    9.023210    9.023210    9.023210    9.023210    9.023210    9.023210    9.023210    9.023210    9.023210
    0.000000    0.000000    0.000000    0.000000    0.000000    0.000000    0.000000    0.000000    0.000000    0.000000    0.000000    0.000000    0.000000    0.000000    0.000000    0.000000    0.000000    0.000000    0.000000    0.000000    0.000000    0.000000    0.000000    0.000000    0.000000    0.000000    0.000000    0.000000    0.000000    0.000000    0.000000    0.000000    0.000000    0.000000    0.000000    0.000000    0.000000    0.000000    0.000000    0.000000    0.000000    0.000000    0.000000    0.000000    0.000000    0.000000    0.000000    0.000000    0.000000    0.000000    0.000000    0.000000    0.000000    0.000000    0.000000    0.000000    0.000000    0.000000    0.000000    0.000000    0.000000    0.000000    0.000000    0.000000    0.000000    0.000000    0.000000    0.000000    0.000000    0.000000    0.000000    0.000000    0.000000    0.000000    0.000000    0.000000    0.000000    0.000000    0.000000    0.000000    0.000000    0.000000    0.000000    0.000000    0.000000    0.000000    0.000000    0.000000    0.000000    0.000000    0.000000    0.000000    0.000000    0.000000    0.000000    0.000000    0.000000    0.000000    0.000000    0.000000    0.000000    0.000000
    0.000000    0.000000    0.000000    0.000000    0.000000    0.000000    0.000000    0.000000    0.000000    0.000000    0.000000    0.000000    0.000000    0.000000    0.000000    0.000000    0.000000    0.000000    0.000000    0.000000    0.000000    0.000000    0.000000    0.000000    0.000000    0.000000    0.000000    0.000000    0.000000    0.000000    0.000000    0.000000    0.000000    0.000000    0.000000    0.000000    0.000000    0.000000    0.000000    0.000000    0.000000    0.000000    0.000000    0.000000    0.000000    0.000000    0.000000    0.000000    0.000000    0.000000    0.000000    0.000000    0.000000    0.000000    0.000000    0.000000    0.000000    0.000000    0.000000    0.000000    0.000000    0.000000    0.000000    0.000000    0.000000    0.000000    0.000000    0.000000    0.000000    0.000000    0.000000    0.000000    0.000000    0.000000    0.000000    0.000000    0.000000    0.000000    0.000000    0.000000    0.000000    0.000000    0.000000    0.000000    0.000000    0.000000    0.000000    0.000000    0.000000    0.000000    0.000000    0.000000    0.000000    0.000000    0.000000    0.000000    0.000000    0.000000    0.000000    0.000000    0.000000    0.000000
